ply
format ascii 1.0
comment Created by CloudCompare v2.11.3 (Anoia)
comment Created 12/11/2020 19:12
obj_info Generated by CloudCompare!
element vertex 1670
property float x
property float y
property float z
property float scalar_intensity
end_header
5.51289 -2.51106 -0.06883 0 
5.47819 -2.32813 -0.093303 0 
5.51876 -2.09752 -0.074018 0 
5.51245 -1.8851 -0.086257 0 
5.46085 -1.68718 -0.114242 0 
5.51426 -1.47699 -0.118918 0 
5.48429 -1.29517 -0.125536 0 
5.49927 -1.10084 -0.15665 0 
5.50282 -0.924566 -0.165473 0 
5.47856 -0.75721 -0.161402 0 
5.52879 -0.534982 -0.187637 0 
5.5342 -0.32348 -0.184538 0 
5.42643 -0.150687 -0.17298 0 
5.59086 0.131138 -0.191313 0 
5.45802 -11.0601 0.174585 0 
5.52204 -10.8895 0.161054 0 
5.48786 -10.7053 0.154274 0 
5.52019 -10.5155 0.145813 0 
5.51468 -10.302 0.13843 0 
5.49704 -10.0696 0.150264 0 
5.53146 -9.86915 0.142782 0 
5.50127 -9.70377 0.136289 0 
5.51316 -9.5055 0.143676 0 
5.48665 -9.29577 0.131536 0 
5.47318 -9.0762 0.15321 0 
5.53297 -8.87857 0.15464 0 
5.48685 -8.70751 0.154195 0 
5.48962 -8.47966 0.16885 0 
5.49134 -8.299 0.154821 0 
5.4597 -8.07487 0.159578 0 
5.50737 -7.85884 0.174393 0 
5.50918 -7.6921 0.141871 0 
5.49413 -7.49957 0.152431 0 
5.49944 -7.30391 0.142803 0 
5.50618 -7.08151 0.1192 0 
5.52076 -6.90429 0.117742 0 
5.4971 -6.69538 0.139028 0 
5.51417 -6.4901 0.12543 0 
5.51232 -6.29047 0.125136 0 
5.52141 -6.07582 0.122097 0 
5.49003 -5.92159 0.131217 0 
5.49405 -5.69907 0.119335 0 
5.49739 -5.49754 0.127638 0 
5.49067 -5.29804 0.135592 0 
5.48766 -5.09346 0.116738 0 
5.48956 -4.92456 0.106861 0 
5.4644 -4.7178 0.092075 0 
5.51633 -4.50459 0.077672 0 
5.50352 -4.31798 0.042114 0 
5.50073 -4.12588 0.029824 0 
5.48526 -3.91472 0.03986 0 
5.51319 -3.71249 0.037153 0 
5.51298 -3.50118 0.036084 0 
5.51872 -3.31285 0.036001 0 
5.50555 -3.14285 0.012766 0 
5.50014 -2.91566 0.037372 0 
5.51945 -2.74932 0.034075 0 
5.50984 -2.56208 0.05539 0 
5.50022 -2.27583 0.017118 0 
5.55717 -2.03001 0.024163 0 
5.51549 -1.95706 0.055638 0 
5.41848 -21.7536 0.365383 0 
5.42779 -18.396 0.369286 0 
5.47383 -15.472 0.394972 0 
5.40369 -15.0305 0.3042 0 
5.48951 -14.6827 0.363338 0 
5.55439 -14.5763 0.369593 0 
5.44473 -13.657 0.365948 0 
5.50985 -13.4796 0.376361 0 
5.44973 -13.2987 0.386889 0 
5.50083 -13.032 0.384832 0 
5.52119 -12.8621 0.295475 0 
5.4427 -12.7961 0.396345 0 
5.5013 -12.4952 0.36674 0 
5.49747 -12.2956 0.360476 0 
5.48418 -12.093 0.36434 0 
5.50848 -11.9329 0.360374 0 
5.48305 -11.6721 0.319899 0 
5.50833 -11.4944 0.336797 0 
5.49927 -11.3036 0.303889 0 
5.50635 -11.1065 0.264387 0 
5.48643 -10.9359 0.227257 0 
5.57039 -10.4381 0.201205 0 
5.50089 -9.70348 0.205413 0 
5.48236 -9.51863 0.363862 0 
5.46703 -9.39468 0.221058 0 
5.50007 -8.54768 0.245133 0 
5.52927 -8.06194 0.226301 0 
5.53823 -7.9332 0.231812 0 
5.4156 -7.64096 0.20364 0 
5.57321 -7.4947 0.203639 0 
5.53824 -6.34805 0.270109 0 
5.47853 -5.42424 0.215515 0 
5.56752 -5.32073 0.240633 0 
5.57906 -5.0019 0.354638 0 
5.58203 -4.99082 0.218738 0 
5.53582 -4.75454 0.213106 0 
5.57126 -24.8633 0.575609 0 
5.47614 -24.5427 0.584326 0 
5.49498 -19.8123 0.505296 0 
5.52228 -19.6454 0.549989 0 
5.50855 -19.4836 0.454805 0 
5.53046 -19.3201 0.523283 0 
5.43069 -19.0807 0.518887 0 
5.45792 -18.7114 0.477615 0 
5.44484 -18.4458 0.536504 0 
5.43335 -18.3749 0.503768 0 
5.49831 -18.0929 0.501213 0 
5.46918 -17.9109 0.493661 0 
5.45713 -17.7264 0.499046 0 
5.48073 -17.4918 0.459891 0 
5.51157 -17.2861 0.473132 0 
5.45743 -17.1325 0.465175 0 
5.49733 -16.7498 0.482745 0 
5.4822 -15.8923 0.475699 0 
5.52325 -15.6479 0.483189 0 
5.49707 -15.4283 0.452481 0 
5.5291 -15.2875 0.479823 0 
5.47213 -14.8918 0.460785 0 
5.48124 -14.6817 0.469424 0 
5.50622 -14.4539 0.467402 0 
5.52273 -14.2895 0.443171 0 
5.49457 -14.1208 0.45333 0 
5.50419 -13.8865 0.458477 0 
5.41836 -13.765 0.460763 0 
5.49322 -13.5003 0.466749 0 
5.51311 -13.2499 0.454447 0 
5.5051 -13.1117 0.460347 0 
5.52446 -12.9379 0.458562 0 
5.49081 -12.691 0.428847 0 
5.50274 -12.5077 0.436039 0 
5.48919 -12.3052 0.429228 0 
5.51156 -12.1091 0.450083 0 
5.55351 -11.9279 0.44051 0 
5.49798 -11.6333 0.460259 0 
5.54432 -11.4853 0.579666 0 
5.45415 -11.1408 0.447619 0 
5.56192 -10.9519 0.466609 0 
5.42419 -5.69907 0.563073 0 
5.44465 -29.5488 0.741979 0 
5.48305 -29.174 0.742656 0 
5.51151 -28.8317 0.766997 0 
5.53185 -26.9456 0.717917 0 
5.48427 -25.5849 0.758745 0 
5.43745 -25.1056 0.720406 0 
5.52603 -24.9042 0.732574 0 
5.49746 -24.6592 0.711309 0 
5.53429 -24.5011 0.661397 0 
5.44719 -24.3359 0.61756 0 
5.45861 -21.5992 0.609029 0 
5.55136 -21.0064 0.665769 0 
5.48009 -20.9029 0.659987 0 
5.58895 -20.3408 0.640263 0 
5.48024 -19.9554 0.603797 0 
5.52389 -15.5476 0.650991 0 
5.44429 -15.1645 0.653084 0 
5.5963 -14.9782 0.665107 0 
5.42099 -12.912 0.637867 0 
5.53621 -12.7358 0.648366 0 
5.50707 -5.90076 0.604366 0 
5.45966 -5.86104 0.869683 0 
5.40163 -5.58225 0.943166 0 
5.52578 -24.8292 1.1541 0 
5.48885 -5.90304 1.14712 0 
5.50899 -24.8088 1.30936 0 
5.56966 -24.6857 1.42942 0 
5.47142 -5.92545 1.42549 0 
5.5615 -24.8519 1.71201 0 
5.5155 -24.7116 1.72907 0 
5.46313 -5.92205 1.70413 0 
5.50184 -24.8382 1.90111 0 
5.48339 -24.7606 1.90062 0 
5.58383 -24.5981 1.88839 0 
5.51922 -6.06001 1.89297 0 
5.4571 -5.86379 1.95106 0 
5.42681 -5.78423 1.96314 0 
5.44942 -24.8263 2.047 0 
5.52355 -24.73 2.06561 0 
5.58947 -24.503 2.01592 0 
5.53529 -6.03488 2.0137 0 
5.49907 -5.87093 2.10831 0 
5.5021 -5.7546 2.11431 0 
5.51089 -5.85803 2.29876 0 
5.50239 -5.75176 2.34204 0 
5.49513 -5.83059 2.4521 0 
5.48647 -5.7184 2.50489 0 
5.65294 21.5908 -1.81086 0 
5.64857 22.1088 -1.82031 0 
5.68298 22.2972 -1.81026 0 
5.75029 22.7554 -1.81714 0 
5.66619 22.8105 -1.84898 0 
5.70178 23.1764 -1.86096 0 
5.64614 23.7416 -1.94962 0 
5.6452 23.9122 -1.90775 0 
5.70596 24.1112 -1.91343 0 
5.72355 24.6505 -1.97113 0 
5.75603 20.4585 -1.60484 0 
5.63852 21.4942 -1.73059 0 
5.72755 21.6815 -1.73768 0 
5.62979 21.8625 -1.75428 0 
5.65976 22.0122 -1.77788 0 
5.68136 22.7115 -1.78048 0 
5.60233 23.0012 -1.77311 0 
5.74414 17.662 -1.41826 0 
5.77397 17.9924 -1.44387 0 
5.63078 18.0851 -1.44523 0 
5.73261 18.3312 -1.44742 0 
5.69633 18.662 -1.46165 0 
5.71621 18.8425 -1.45298 0 
5.6886 19.0805 -1.46496 0 
5.68595 19.3556 -1.52913 0 
5.69864 19.4037 -1.47465 0 
5.64629 19.7351 -1.51565 0 
5.68464 19.9066 -1.58281 0 
5.73821 14.3361 -1.20107 0 
5.64177 14.6806 -1.22251 0 
5.76637 14.8712 -1.22885 0 
5.64879 15.1205 -1.20982 0 
5.71219 15.3524 -1.23216 0 
5.70114 15.4712 -1.21855 0 
5.68495 15.6807 -1.24367 0 
5.76932 15.8738 -1.22005 0 
5.75918 16.005 -1.24419 0 
5.68349 16.2983 -1.25828 0 
5.69806 16.475 -1.28373 0 
5.72854 16.7132 -1.28043 0 
5.68131 16.8927 -1.30681 0 
5.66866 17.0937 -1.31027 0 
5.65188 17.2662 -1.33922 0 
5.71542 17.498 -1.36469 0 
5.69165 17.8768 -1.37798 0 
5.73416 18.0509 -1.34634 0 
5.79319 18.8402 -1.39388 0 
5.72684 19.1007 -1.35902 0 
5.63887 11.9458 -1.00046 0 
5.70506 12.0982 -1.00578 0 
5.68431 12.2972 -1.02881 0 
5.68104 12.517 -1.02853 0 
5.65571 12.7286 -1.03139 0 
5.67812 12.9207 -1.0343 0 
5.66742 13.1379 -1.01975 0 
5.72826 13.3412 -1.05319 0 
5.70239 13.5189 -1.07832 0 
5.72795 13.712 -1.06502 0 
5.67527 13.8952 -1.09109 0 
5.70924 14.1063 -1.10806 0 
5.68078 14.3069 -1.11734 0 
5.67354 14.452 -1.12489 0 
5.71467 14.6692 -1.13143 0 
5.71918 14.8995 -1.13662 0 
5.69184 15.1216 -1.16016 0 
5.62005 15.2681 -1.18897 0 
5.78237 15.4719 -1.17533 0 
5.60416 15.7428 -1.19118 0 
5.71912 15.9017 -1.16768 0 
5.78962 7.3443 -0.809845 0 
5.72237 10.7019 -0.812153 0 
5.68667 10.9022 -0.813089 0 
5.71652 11.1242 -0.844074 0 
5.71549 11.3138 -0.850083 0 
5.71232 11.493 -0.886099 0 
5.6859 11.6776 -0.892714 0 
5.70983 11.9037 -0.902166 0 
5.67681 12.0951 -0.925883 0 
5.70607 12.309 -0.942545 0 
5.69519 12.4891 -0.954009 0 
5.69811 12.6904 -0.946849 0 
5.72647 12.9024 -0.986158 0 
5.71957 13.0531 -0.97264 0 
5.67149 13.376 -0.988627 0 
5.65882 13.4085 -0.986817 0 
5.68946 4.90751 -0.617592 0 
5.69814 5.1116 -0.620324 0 
5.68657 5.31529 -0.627661 0 
5.72693 5.50161 -0.6283 0 
5.70401 5.70433 -0.626126 0 
5.71204 5.89149 -0.636258 0 
5.67182 6.1045 -0.644876 0 
5.69976 6.32302 -0.655959 0 
5.69189 6.50068 -0.655033 0 
5.68502 6.70468 -0.666434 0 
5.69455 6.89305 -0.671503 0 
5.68924 7.08867 -0.668288 0 
5.70659 7.30081 -0.683169 0 
5.70407 7.49684 -0.672398 0 
5.69433 7.68916 -0.672029 0 
5.69291 7.90113 -0.672467 0 
5.70372 8.11405 -0.654748 0 
5.71329 8.2892 -0.671245 0 
5.71435 8.50076 -0.673163 0 
5.68873 8.70297 -0.662865 0 
5.70249 8.89301 -0.66885 0 
5.70258 9.10715 -0.66946 0 
5.68981 9.30983 -0.68352 0 
5.69576 9.49502 -0.678312 0 
5.70099 9.69451 -0.682227 0 
5.70949 9.89628 -0.693659 0 
5.71104 10.0755 -0.712095 0 
5.71707 10.2643 -0.720024 0 
5.69079 10.4672 -0.745345 0 
5.6961 10.6674 -0.756646 0 
5.70615 10.9009 -0.75424 0 
5.6961 11.0958 -0.784329 0 
5.69826 11.3256 -0.78086 0 
5.69759 1.50674 -0.413928 0 
5.71414 1.69872 -0.414021 0 
5.71138 1.89129 -0.425009 0 
5.72006 2.11165 -0.427407 0 
5.70853 2.32683 -0.427295 0 
5.71141 2.5037 -0.425377 0 
5.69666 2.71139 -0.435987 0 
5.65961 2.90222 -0.429927 0 
5.70016 3.10503 -0.456507 0 
5.71489 3.2981 -0.462808 0 
5.69262 3.50947 -0.464899 0 
5.69815 3.69629 -0.473741 0 
5.69491 3.90083 -0.46753 0 
5.7018 4.10567 -0.492306 0 
5.69374 4.3063 -0.493469 0 
5.69958 4.49813 -0.517596 0 
5.70322 4.71576 -0.526281 0 
5.69049 4.91247 -0.546776 0 
5.6999 5.10384 -0.559084 0 
5.68848 5.29099 -0.567324 0 
5.69728 5.4976 -0.572603 0 
5.70762 5.6787 -0.578345 0 
5.70182 5.86166 -0.576231 0 
5.66796 6.13944 -0.577462 0 
5.74371 6.28612 -0.572545 0 
5.68439 6.50646 -0.576651 0 
5.71309 6.71454 -0.583381 0 
5.71937 6.96684 -0.588741 0 
5.61657 8.08093 -0.593134 0 
5.79739 8.24588 -0.589175 0 
5.73152 8.93871 -0.595281 0 
5.67233 9.08155 -0.522328 0 
5.74715 10.3948 -0.599805 0 
5.66425 -2.03528 -0.201073 0 
5.69396 -1.87905 -0.202326 0 
5.79719 -1.72681 -0.205891 0 
5.7148 -1.3137 -0.209873 0 
5.72621 -1.09539 -0.212036 0 
5.71655 -0.921914 -0.227205 0 
5.71827 -0.689808 -0.244538 0 
5.70432 -0.485146 -0.252334 0 
5.73388 -0.289677 -0.257413 0 
5.67575 -0.115038 -0.279989 0 
5.70083 0.104915 -0.282937 0 
5.70308 0.304007 -0.304642 0 
5.70655 0.48761 -0.292977 0 
5.69198 0.71046 -0.297685 0 
5.72146 0.893819 -0.304493 0 
5.70272 1.09155 -0.318923 0 
5.70798 1.29613 -0.336627 0 
5.70323 1.51717 -0.354435 0 
5.68423 1.69462 -0.362658 0 
5.6919 1.91182 -0.361099 0 
5.72182 2.09724 -0.354037 0 
5.71138 2.2913 -0.361022 0 
5.68361 2.52055 -0.376082 0 
5.69615 2.70504 -0.367602 0 
5.69522 2.8799 -0.382277 0 
5.69256 3.07671 -0.381163 0 
5.6778 3.23186 -0.38245 0 
5.76065 3.48312 -0.396095 0 
5.67693 3.69099 -0.37176 0 
5.70748 3.86082 -0.376009 0 
5.64272 -4.47768 -0.017311 0 
5.72973 -4.27666 -0.020759 0 
5.68035 -4.06586 -0.01726 0 
5.69692 -3.90612 -0.012783 0 
5.71809 -3.76048 -0.012699 0 
5.70199 -3.47313 -0.028729 0 
5.65658 -3.28517 -0.018438 0 
5.65715 -3.10799 -0.034512 0 
5.69636 -2.8739 -0.034226 0 
5.70996 -2.70012 -0.037785 0 
5.70323 -2.51123 -0.055687 0 
5.69958 -2.2975 -0.055499 0 
5.70999 -2.12293 -0.063528 0 
5.69013 -1.91391 -0.072638 0 
5.70438 -1.70896 -0.092837 0 
5.70877 -1.49486 -0.10208 0 
5.70078 -1.32011 -0.120072 0 
5.70726 -1.11341 -0.138323 0 
5.71329 -0.914964 -0.168778 0 
5.70885 -0.722503 -0.169936 0 
5.68173 -0.466845 -0.196693 0 
5.68069 -0.328881 -0.157037 0 
5.68478 -0.109338 -0.184371 0 
5.68301 3.19639 -0.131442 0 
5.65401 -11.0737 0.177017 0 
5.69087 -10.8591 0.173349 0 
5.68299 -10.71 0.167147 0 
5.68446 -10.509 0.153838 0 
5.67549 -10.2772 0.159643 0 
5.67205 -10.0811 0.146017 0 
5.70806 -9.89103 0.163034 0 
5.67556 -9.69533 0.172101 0 
5.69739 -9.50905 0.159768 0 
5.69735 -9.31624 0.142357 0 
5.69015 -9.10779 0.166298 0 
5.69912 -8.89183 0.160751 0 
5.75721 -8.68616 0.142099 0 
5.6916 -8.50024 0.170786 0 
5.69628 -8.26735 0.167875 0 
5.65876 -8.09264 0.171582 0 
5.6932 -7.91298 0.170535 0 
5.68427 -7.69345 0.150143 0 
5.69989 -7.4804 0.171207 0 
5.7003 -7.32813 0.153928 0 
5.69848 -7.07986 0.147696 0 
5.71354 -6.94274 0.13343 0 
5.71042 -6.69391 0.134019 0 
5.70901 -6.49505 0.121889 0 
5.7005 -6.28684 0.124746 0 
5.69195 -6.12443 0.131531 0 
5.69199 -5.86984 0.129357 0 
5.69168 -5.65411 0.115968 0 
5.68843 -5.47929 0.124294 0 
5.71791 -5.30444 0.123849 0 
5.68466 -5.10401 0.134601 0 
5.67059 -4.90489 0.103839 0 
5.68837 -4.70256 0.062846 0 
5.67781 -4.52611 0.053655 0 
5.70592 -4.28129 0.052785 0 
5.7276 -4.09086 0.047188 0 
5.71219 -3.90774 0.050385 0 
5.69871 -3.69811 0.043346 0 
5.73209 -3.52532 0.042415 0 
5.70638 -3.32002 0.028617 0 
5.65628 -3.08376 0.013725 0 
5.66136 -2.95157 0.007944 0 
5.64558 -2.61822 0.027839 0 
5.73053 -2.52778 0.026084 0 
5.6227 -2.34431 0.078024 0 
5.69927 -2.05542 0.010575 0 
5.73442 -1.87881 0.022945 0 
5.65603 3.18872 0.047697 0 
5.73445 -18.3723 0.379991 0 
5.68849 -14.5147 0.364675 0 
5.63362 -12.9726 0.379632 0 
5.73578 -12.6107 0.361557 0 
5.6633 -12.5092 0.392085 0 
5.6962 -12.3374 0.377332 0 
5.69038 -12.0829 0.360734 0 
5.68669 -11.8643 0.363321 0 
5.72285 -11.6935 0.3626 0 
5.68494 -11.4523 0.332584 0 
5.71384 -11.2915 0.325358 0 
5.70175 -11.11 0.269858 0 
5.71088 -10.9334 0.239803 0 
5.72218 -10.7428 0.212969 0 
5.79515 -10.4264 0.209327 0 
5.78972 -10.3884 0.208102 0 
5.7322 -10.1663 0.209857 0 
5.7235 -9.91101 0.212177 0 
5.67491 -9.62897 0.29791 0 
5.63851 -9.33665 0.234328 0 
5.64502 -8.71093 0.215117 0 
5.674 -8.50022 0.297869 0 
5.78778 -8.35421 0.208315 0 
5.67148 -8.1382 0.235287 0 
5.71603 -7.88853 0.218096 0 
5.70295 -7.73119 0.214961 0 
5.72181 -7.45124 0.204073 0 
5.79038 -7.28872 0.20316 0 
5.79734 -6.29613 0.32455 0 
5.71751 -6.0473 0.201006 0 
5.71183 -5.65268 0.211902 0 
5.79655 -5.56161 0.302155 0 
5.69099 -5.28715 0.227789 0 
5.63752 -5.15316 0.226308 0 
5.60738 -4.60474 0.214182 0 
5.66833 -24.8644 0.580537 0 
5.69662 -24.4195 0.567492 0 
5.71911 -24.2567 0.526599 0 
5.61219 -21.3492 0.421335 0 
5.79422 -20.7678 0.483987 0 
5.75098 -19.8916 0.564977 0 
5.69637 -19.7598 0.525116 0 
5.61456 -19.5347 0.522638 0 
5.70513 -19.0703 0.541843 0 
5.71623 -18.8113 0.499954 0 
5.69743 -18.7878 0.498982 0 
5.6292 -18.4219 0.52989 0 
5.70933 -17.8857 0.517286 0 
5.69377 -17.4879 0.502357 0 
5.71042 -17.3303 0.477896 0 
5.61669 -17.0359 0.484932 0 
5.61729 -16.6682 0.453571 0 
5.77248 -16.4604 0.474848 0 
5.6812 -16.1163 0.497558 0 
5.79801 -15.8388 0.572865 0 
5.71749 -15.6497 0.482055 0 
5.62198 -15.4453 0.452627 0 
5.71488 -15.2898 0.481852 0 
5.72234 -15.113 0.504402 0 
5.72758 -14.89 0.487315 0 
5.68183 -14.6908 0.487107 0 
5.72902 -14.5243 0.47681 0 
5.71725 -14.3309 0.488596 0 
5.63584 -14.0809 0.451446 0 
5.69607 -13.9285 0.458604 0 
5.74942 -13.6102 0.47681 0 
5.65363 -13.4442 0.46815 0 
5.7304 -13.2694 0.518815 0 
5.68837 -13.0762 0.456717 0 
5.67667 -12.9085 0.468531 0 
5.71185 -12.7032 0.466149 0 
5.70239 -12.4692 0.455419 0 
5.68829 -12.2792 0.437894 0 
5.69271 -12.135 0.43794 0 
5.70339 -11.9163 0.448236 0 
5.71749 -11.7191 0.411079 0 
5.73649 -11.2932 0.487308 0 
5.7614 -11.0664 0.444667 0 
5.75698 -10.8388 0.451242 0 
5.72136 -5.79233 0.549076 0 
5.71769 -29.9258 0.752734 0 
5.69139 -28.9349 0.759091 0 
5.60982 -28.6554 0.771053 0 
5.67349 -28.4593 0.754495 0 
5.66785 -28.2052 0.727786 0 
5.62654 -28.0309 0.68053 0 
5.70202 -25.2604 0.689264 0 
5.72168 -25.0668 0.798104 0 
5.73011 -24.8617 0.753954 0 
5.71726 -24.6877 0.73621 0 
5.67233 -24.5006 0.708001 0 
5.7051 -24.2954 0.725615 0 
5.7375 -24.151 0.679785 0 
5.62584 -23.5149 0.728804 0 
5.64229 -22.9379 0.609683 0 
5.64111 -21.656 0.629852 0 
5.69778 -21.4613 0.644627 0 
5.7622 -21.0807 0.683797 0 
5.63406 -19.866 0.612478 0 
5.74985 -19.5045 0.607075 0 
5.78357 -18.068 0.609975 0 
5.70244 -15.3997 0.672093 0 
5.70948 -14.7639 0.675038 0 
5.74353 -12.5343 0.630797 0 
5.6811 -25.0193 0.838183 0 
5.7217 -24.9218 0.87878 0 
5.75046 -24.726 0.990805 0 
5.77209 -24.4785 0.809538 0 
5.68585 -25.0261 1.19667 0 
5.76324 -24.9076 1.08812 0 
5.74457 -24.7651 1.09089 0 
5.66288 -5.81011 1.02716 0 
5.67435 -24.8622 1.31605 0 
5.7382 -24.7561 1.33605 0 
5.68069 -24.8738 1.42379 0 
5.71715 -24.7676 1.51381 0 
5.72817 -5.80487 1.51325 0 
5.67864 -24.8846 1.72523 0 
5.70604 -24.7161 1.7047 0 
5.66637 -24.5822 1.76345 0 
5.70037 -24.8369 1.88911 0 
5.69057 -24.7256 1.89093 0 
5.72537 -24.59 1.87872 0 
5.67605 -24.7182 2.04301 0 
5.71708 -24.5755 2.14047 0 
5.63579 -5.869 2.14077 0 
5.62987 -5.73845 2.07959 0 
5.63615 -5.86941 2.26937 0 
5.63075 -5.75492 2.29125 0 
5.70419 -5.85876 2.42491 0 
5.64347 -5.73811 2.51204 0 
5.91596 29.0999 -2.64658 0 
5.89392 29.4719 -2.61472 0 
5.96317 28.6086 -2.41942 0 
5.83593 29.8695 -2.58702 0 
5.84471 22.4683 -1.90542 0 
5.99267 23.1353 -1.87699 0 
5.80426 23.2744 -1.89834 0 
5.91114 23.8727 -1.94088 0 
5.92164 24.1234 -1.89235 0 
5.97838 20.6414 -1.64421 0 
5.8934 21.1004 -1.66494 0 
5.90862 21.2788 -1.65766 0 
5.82276 21.4868 -1.71122 0 
5.92924 21.8718 -1.73697 0 
5.93034 22.1205 -1.79848 0 
5.81323 22.3695 -1.77551 0 
5.9689 22.6914 -1.75432 0 
5.8688 22.8131 -1.7639 0 
5.98911 17.7135 -1.40118 0 
5.96919 17.9096 -1.43342 0 
5.84811 18.1385 -1.48691 0 
5.92445 18.2866 -1.44457 0 
5.86881 18.4927 -1.4546 0 
5.86227 18.637 -1.46011 0 
5.92409 18.8768 -1.43596 0 
5.94682 19.0988 -1.42763 0 
5.92356 19.2638 -1.46394 0 
5.81137 19.5204 -1.5119 0 
5.9301 19.6889 -1.52276 0 
5.94813 19.8386 -1.5451 0 
5.86287 20.0691 -1.56958 0 
5.96803 20.4958 -1.54544 0 
5.947 14.7406 -1.20504 0 
5.91511 14.9398 -1.20895 0 
5.83562 15.3684 -1.26747 0 
5.9687 15.5717 -1.24346 0 
5.85506 15.7102 -1.24585 0 
5.90515 15.9194 -1.21618 0 
5.86931 16.1099 -1.22837 0 
5.9387 16.3391 -1.25909 0 
5.89019 16.4903 -1.25705 0 
5.86555 16.6708 -1.24653 0 
5.89655 16.8652 -1.2966 0 
5.92933 17.1 -1.29238 0 
5.86738 17.3061 -1.31543 0 
5.91882 17.4851 -1.34921 0 
5.84094 17.6811 -1.35308 0 
5.90304 17.8369 -1.36958 0 
5.96653 18.0583 -1.3893 0 
5.91307 18.3589 -1.38263 0 
5.96147 18.621 -1.36127 0 
5.86858 18.8617 -1.3878 0 
5.84962 19.6561 -1.30292 0 
5.86817 12.1068 -1.00953 0 
5.92488 12.3981 -1.03297 0 
5.9108 12.5333 -1.02975 0 
5.90902 12.7132 -1.02652 0 
5.866 12.9019 -1.02587 0 
5.90457 13.1196 -1.01917 0 
5.89063 13.3232 -1.05412 0 
5.89439 13.4851 -1.05462 0 
5.90177 13.7031 -1.06372 0 
5.88406 13.9159 -1.07788 0 
5.91746 14.109 -1.07672 0 
5.88216 14.2634 -1.11222 0 
5.92315 14.4933 -1.11559 0 
5.9422 14.7118 -1.13208 0 
5.89588 14.9431 -1.13635 0 
5.8884 15.0613 -1.15076 0 
5.87042 15.2999 -1.16663 0 
5.99101 15.7551 -1.19972 0 
5.80859 15.8562 -1.1796 0 
5.80092 16.4137 -1.17181 0 
5.98165 9.36197 -0.808861 0 
5.97943 10.7433 -0.813418 0 
5.9288 10.9089 -0.833379 0 
5.91579 11.0814 -0.828522 0 
5.90275 11.2886 -0.852525 0 
5.88958 11.5162 -0.871781 0 
5.89064 11.7204 -0.878188 0 
5.91865 11.9017 -0.907981 0 
5.87856 12.1002 -0.921182 0 
5.88662 12.3036 -0.939424 0 
5.89282 12.5188 -0.946577 0 
5.88484 12.6655 -0.958199 0 
5.92033 12.867 -0.974507 0 
5.91192 13.0868 -0.985782 0 
5.91382 13.3073 -0.956417 0 
5.95125 13.5645 -0.990885 0 
5.93043 4.68413 -0.60827 0 
5.90567 4.87455 -0.619746 0 
5.86539 5.08152 -0.626107 0 
5.9037 5.28237 -0.621198 0 
5.89445 5.50675 -0.620618 0 
5.88781 5.70777 -0.631079 0 
5.8857 5.89855 -0.635448 0 
5.89938 6.1179 -0.648712 0 
5.89986 6.31454 -0.648967 0 
5.89584 6.49043 -0.655266 0 
5.90526 6.69138 -0.664393 0 
5.8876 6.88883 -0.656919 0 
5.88542 7.09868 -0.676502 0 
5.89146 7.28528 -0.67132 0 
5.89818 7.49078 -0.664119 0 
5.88762 7.69741 -0.672535 0 
5.90339 7.8913 -0.668064 0 
5.91176 8.09364 -0.664692 0 
5.90338 8.31036 -0.66066 0 
5.88683 8.5041 -0.67464 0 
5.90328 8.70754 -0.677901 0 
5.904 8.92495 -0.670405 0 
5.92412 9.11921 -0.670261 0 
5.88006 9.28869 -0.670765 0 
5.89473 9.51241 -0.684139 0 
5.91773 9.7104 -0.706955 0 
5.90326 9.92137 -0.720075 0 
5.89137 10.108 -0.712184 0 
5.90187 10.3097 -0.731558 0 
5.91581 10.5204 -0.721935 0 
5.89614 10.7002 -0.768102 0 
5.91017 10.8972 -0.752529 0 
5.94618 11.0779 -0.756306 0 
5.93785 11.3032 -0.772403 0 
5.92134 11.4478 -0.731297 0 
5.8296 11.6128 -0.775856 0 
5.92755 1.33544 -0.417787 0 
5.93706 1.48307 -0.411097 0 
5.89873 1.71216 -0.420776 0 
5.90499 1.91031 -0.413269 0 
5.92235 2.1109 -0.416742 0 
5.90375 2.28811 -0.419918 0 
5.86793 2.48433 -0.418532 0 
5.89248 2.66139 -0.426 0 
5.90522 2.90587 -0.434119 0 
5.88289 3.07932 -0.449124 0 
5.90361 3.29369 -0.449218 0 
5.90115 3.50851 -0.466449 0 
5.89143 3.70736 -0.459325 0 
5.88624 3.90356 -0.473496 0 
5.91039 4.10156 -0.482457 0 
5.89594 4.31502 -0.498327 0 
5.90506 4.49694 -0.510205 0 
5.89988 4.69977 -0.514822 0 
5.92524 4.89919 -0.543675 0 
5.90835 5.1029 -0.55161 0 
5.88994 5.27686 -0.571625 0 
5.90983 5.52332 -0.570087 0 
5.89826 5.70337 -0.580552 0 
5.89688 5.87721 -0.562889 0 
5.90145 6.09008 -0.582615 0 
5.90817 6.30036 -0.568642 0 
5.90014 6.48072 -0.577995 0 
5.95529 6.68624 -0.588979 0 
5.89278 6.82963 -0.572416 0 
5.99153 7.28575 -0.598278 0 
5.9645 7.97225 -0.599209 0 
5.84602 8.17494 -0.595571 0 
5.95629 8.34101 -0.59384 0 
5.9803 9.18714 -0.52834 0 
5.8957 -1.475 -0.206005 0 
5.9474 -1.16947 -0.209341 0 
5.85859 -0.925825 -0.206159 0 
5.88251 -0.700643 -0.231116 0 
5.90111 -0.488357 -0.261869 0 
5.9167 -0.32243 -0.273932 0 
5.9255 -0.099479 -0.270219 0 
5.91083 0.11304 -0.280293 0 
5.90758 0.299818 -0.279619 0 
5.91185 0.496095 -0.302585 0 
5.90194 0.692402 -0.296273 0 
5.89522 0.903109 -0.305525 0 
5.90704 1.09464 -0.313816 0 
5.89877 1.28086 -0.340969 0 
5.92698 1.49665 -0.357181 0 
5.91671 1.70475 -0.354445 0 
5.90195 1.9189 -0.339405 0 
5.92008 2.09799 -0.348139 0 
5.89311 2.27818 -0.353305 0 
5.87915 2.47796 -0.363585 0 
5.89456 2.71054 -0.376458 0 
5.90393 2.8859 -0.357806 0 
5.90304 3.09285 -0.381102 0 
5.88382 3.2872 -0.385382 0 
5.95921 3.50196 -0.378142 0 
5.89631 3.76201 -0.377216 0 
5.90287 3.86589 -0.368822 0 
5.98564 4.17495 -0.353972 0 
5.85451 -4.36427 -0.005209 0 
5.85255 -4.10392 -0.012712 0 
5.89259 -3.93333 -0.015753 0 
5.90388 -3.72166 -0.017333 0 
5.8522 -3.50464 -0.026402 0 
5.92506 -3.27337 -0.017379 0 
5.90397 -3.11719 -0.023627 0 
5.88432 -2.93539 -0.037277 0 
5.87617 -2.69622 -0.02733 0 
5.91576 -2.48236 -0.049441 0 
5.90243 -2.27345 -0.065992 0 
5.93515 -2.0837 -0.069753 0 
5.88664 -1.87972 -0.070565 0 
5.92107 -1.70818 -0.093348 0 
5.88995 -1.53464 -0.105031 0 
5.89742 -1.30108 -0.128372 0 
5.90542 -1.09972 -0.140933 0 
5.89148 -0.92357 -0.154953 0 
5.93092 -0.710728 -0.159932 0 
5.92114 -0.483332 -0.172676 0 
5.88806 -0.363407 -0.19422 0 
5.897 -0.093109 -0.18212 0 
5.93436 0.045428 -0.182481 0 
5.90067 3.36932 -0.101746 0 
5.93074 -11.0587 0.181554 0 
5.83722 -10.8567 0.172706 0 
5.88106 -10.6884 0.172229 0 
5.9105 -10.4968 0.165774 0 
5.89452 -10.2896 0.165431 0 
5.90828 -10.0932 0.167255 0 
5.89755 -9.92262 0.162847 0 
5.88775 -9.73307 0.159985 0 
5.87902 -9.51624 0.143587 0 
5.87703 -9.30294 0.164437 0 
5.90352 -9.13372 0.169756 0 
5.90227 -8.91359 0.162812 0 
5.92875 -8.67169 0.174371 0 
5.86756 -8.48627 0.169084 0 
5.91814 -8.27515 0.159187 0 
5.86242 -8.07932 0.169528 0 
5.91026 -7.83965 0.160365 0 
5.9059 -7.70495 0.174709 0 
5.89848 -7.48883 0.160897 0 
5.89322 -7.30772 0.149152 0 
5.91185 -7.06341 0.157271 0 
5.87997 -6.90161 0.14744 0 
5.88322 -6.69992 0.127163 0 
5.89818 -6.52316 0.140232 0 
5.88899 -6.3001 0.124717 0 
5.92232 -6.12973 0.134736 0 
5.88574 -5.90344 0.133978 0 
5.90249 -5.69644 0.134173 0 
5.87599 -5.48537 0.134348 0 
5.92451 -5.29528 0.127829 0 
5.88053 -5.08823 0.12226 0 
5.91734 -4.89872 0.104175 0 
5.90485 -4.68819 0.082538 0 
5.90164 -4.50489 0.073755 0 
5.89346 -4.27746 0.053659 0 
5.8935 -4.10328 0.045737 0 
5.91171 -3.89451 0.045906 0 
5.88266 -3.72538 0.048519 0 
5.8704 -3.4994 0.034261 0 
5.92673 -3.29298 0.064187 0 
5.92401 -3.12712 0.018148 0 
5.91583 -2.89985 0.026756 0 
5.88992 -2.67039 0.015004 0 
5.81064 -2.40258 0.057304 0 
5.88594 -2.33708 0.001049 0 
5.86947 -2.14745 0.024685 0 
5.93318 -1.82386 0.018124 0 
5.87423 -1.67529 0.02903 0 
5.87877 -24.8053 0.330923 0 
5.84356 -18.9798 0.371563 0 
5.93134 -14.4614 0.360518 0 
5.9179 -12.4111 0.38406 0 
5.88878 -12.2745 0.379757 0 
5.88059 -12.1312 0.392468 0 
5.87236 -11.9179 0.386754 0 
5.88479 -11.6871 0.368675 0 
5.8485 -11.4597 0.34975 0 
5.8946 -11.2783 0.333669 0 
5.88507 -11.0791 0.295379 0 
5.92149 -10.8927 0.24066 0 
5.938 -10.6952 0.224779 0 
5.90514 -10.5223 0.219282 0 
5.90763 -10.2481 0.204458 0 
5.91944 -10.0659 0.217124 0 
5.92103 -9.96707 0.307015 0 
5.89568 -9.75612 0.261268 0 
5.98416 -9.45389 0.203778 0 
5.90764 -8.84453 0.21985 0 
5.89059 -8.72583 0.205785 0 
5.91856 -8.4984 0.241142 0 
5.91209 -8.32551 0.232542 0 
5.86749 -8.09326 0.22191 0 
5.91275 -7.9426 0.207546 0 
5.90185 -7.6303 0.2394 0 
5.88607 -7.47147 0.215122 0 
5.87423 -7.23315 0.201834 0 
5.97217 -7.10389 0.210365 0 
5.88866 -6.75263 0.208627 0 
5.8419 -6.47166 0.210004 0 
5.80792 -6.3267 0.200147 0 
5.83045 -6.1512 0.214596 0 
5.84072 -5.82655 0.220728 0 
5.86439 -5.41921 0.245507 0 
5.8649 -5.23451 0.204473 0 
5.89181 -5.15816 0.205726 0 
5.98682 -4.9885 0.231268 0 
5.95152 -24.169 0.549567 0 
5.88458 -20.0385 0.537555 0 
5.94539 -19.8377 0.491497 0 
5.88657 -19.5847 0.541679 0 
5.93869 -18.9312 0.564098 0 
5.83514 -18.6063 0.545724 0 
5.92287 -18.5507 0.544187 0 
5.9082 -17.6005 0.566294 0 
5.91033 -17.5073 0.513629 0 
5.81706 -17.3562 0.49243 0 
5.91446 -17.0753 0.461276 0 
5.81809 -16.6808 0.502228 0 
5.91803 -16.2454 0.495817 0 
5.86779 -15.6478 0.505102 0 
5.91355 -15.5019 0.524152 0 
5.88902 -15.2443 0.47279 0 
5.88096 -15.1206 0.512092 0 
5.92689 -14.8859 0.508104 0 
5.89829 -14.721 0.477601 0 
5.90838 -14.5003 0.497718 0 
5.91965 -14.3161 0.474209 0 
5.91137 -14.1123 0.480046 0 
5.8303 -13.9527 0.483357 0 
5.92853 -13.6025 0.50516 0 
5.92924 -13.5831 0.51925 0 
5.84681 -13.236 0.525839 0 
5.8869 -13.0437 0.523954 0 
5.86567 -12.8602 0.491786 0 
5.88158 -12.7026 0.489832 0 
5.92171 -12.4721 0.484122 0 
5.91535 -12.3109 0.477575 0 
5.90913 -12.0885 0.45173 0 
5.93469 -11.9428 0.4423 0 
5.93766 -11.722 0.439627 0 
5.9202 -11.594 0.412453 0 
5.91642 -11.188 0.563722 0 
5.93395 -10.4207 0.421277 0 
5.86817 -28.5458 0.777282 0 
5.97949 -28.1285 0.794646 0 
5.89362 -25.1005 0.769718 0 
5.90264 -24.8427 0.757424 0 
5.86213 -24.6447 0.732889 0 
5.88402 -24.4601 0.702091 0 
5.88654 -24.3328 0.662503 0 
5.81937 -23.8861 0.680929 0 
5.8888 -23.406 0.679923 0 
5.96682 -23.2202 0.681566 0 
5.9023 -21.4006 0.630635 0 
5.96713 -21.2546 0.700952 0 
5.82524 -19.9032 0.624992 0 
5.87399 -19.6781 0.625696 0 
5.85944 -15.2273 0.692043 0 
5.9313 -15.0751 0.704142 0 
5.82537 -14.6522 0.683913 0 
5.9316 -14.5318 0.692303 0 
5.82094 -12.4213 0.665134 0 
5.87732 -12.2866 0.669535 0 
5.97373 -12.1614 0.673785 0 
5.99593 3.49531 0.670154 0 
5.88699 -25.0619 0.860498 0 
5.92864 -24.8595 0.894549 0 
5.91191 -24.7459 0.916013 0 
5.96349 -24.4741 0.828662 0 
5.86459 -24.8574 1.10791 0 
5.91224 -24.7237 1.14238 0 
5.83794 -24.8681 1.28087 0 
5.8867 -24.7269 1.29254 0 
5.90138 -24.697 1.50566 0 
5.85723 -24.5807 1.4943 0 
5.93252 -24.8439 1.71527 0 
5.90309 -24.6828 1.71832 0 
5.82414 -24.5574 1.6624 0 
5.93304 -24.8716 1.93606 0 
5.9066 -24.6809 1.88475 0 
5.85278 -24.5173 1.90894 0 
5.98633 -24.8128 2.02828 0 
5.89505 -24.7212 2.05821 0 
5.94314 -24.5596 2.07154 0 
5.86228 -6.01661 2.04742 0 
5.88963 -24.5886 2.22182 0 
5.86962 -6.04464 2.29062 0 
6.14169 29.7882 -2.60887 0 
6.14849 28.6909 -2.49921 0 
6.09841 29.2645 -2.50352 0 
6.19914 22.4231 -1.97508 0 
6.04078 22.9773 -1.80831 0 
6.05028 23.1878 -1.81625 0 
6.10915 23.3969 -1.8849 0 
6.15549 23.4738 -1.8471 0 
6.1291 24.0638 -1.92625 0 
6.05412 21.063 -1.63847 0 
6.09135 21.5255 -1.7379 0 
6.06647 21.9112 -1.75057 0 
6.12474 22.0175 -1.7336 0 
6.15203 22.5779 -1.73857 0 
6.10563 22.6806 -1.75341 0 
6.07947 22.8536 -1.75132 0 
6.07333 23.0217 -1.76699 0 
6.14981 17.755 -1.42997 0 
6.11189 17.903 -1.41525 0 
6.09111 18.052 -1.40956 0 
6.05742 18.3097 -1.42109 0 
6.01518 18.5514 -1.42665 0 
6.04117 18.6214 -1.41039 0 
6.10729 18.9591 -1.43017 0 
6.13503 19.024 -1.42388 0 
6.07942 19.3077 -1.44235 0 
6.04577 19.5693 -1.50235 0 
6.1208 19.7122 -1.45445 0 
6.07178 20.0788 -1.51309 0 
6.06076 20.4452 -1.56683 0 
6.05651 20.8566 -1.59618 0 
6.15512 21.3332 -1.55584 0 
6.17508 14.7962 -1.21732 0 
6.16182 14.9455 -1.21089 0 
6.11964 15.2015 -1.23353 0 
6.15636 15.5717 -1.22967 0 
6.09513 15.6729 -1.21247 0 
6.12826 15.9016 -1.21407 0 
6.07162 16.1547 -1.23805 0 
6.07922 16.3101 -1.24971 0 
6.16953 16.4949 -1.24435 0 
6.09295 16.7006 -1.27986 0 
6.10405 16.8956 -1.27857 0 
6.10461 17.1118 -1.28154 0 
6.04677 17.2353 -1.31799 0 
6.07898 17.5077 -1.3509 0 
6.14222 17.6489 -1.3106 0 
6.13666 17.8871 -1.36224 0 
6.08479 18.0801 -1.33946 0 
6.14331 18.3039 -1.38175 0 
6.15288 18.4287 -1.33092 0 
6.15965 18.6231 -1.37761 0 
6.09038 18.8914 -1.37323 0 
6.14232 19.0079 -1.39995 0 
6.15728 19.7287 -1.26858 0 
6.06132 12.2391 -1.00283 0 
6.08242 12.4975 -1.02605 0 
6.12557 12.7281 -1.0196 0 
6.07317 12.8958 -1.02683 0 
6.10388 13.0575 -1.02491 0 
6.09614 13.303 -1.04112 0 
6.13592 13.5323 -1.05437 0 
6.11959 13.7147 -1.06092 0 
6.10698 13.888 -1.08507 0 
6.11085 14.0903 -1.0911 0 
6.05988 14.242 -1.06686 0 
6.11927 14.5168 -1.10616 0 
6.06601 14.6786 -1.12436 0 
6.12586 14.9322 -1.15252 0 
6.08788 15.0502 -1.13366 0 
6.09755 15.2736 -1.15515 0 
6.09077 15.5332 -1.18743 0 
6.1239 15.6392 -1.15277 0 
6.10491 15.8424 -1.17981 0 
6.13968 16.1794 -1.19788 0 
6.15702 16.3673 -1.19851 0 
6.19497 16.5852 -1.19351 0 
6.04727 9.93038 -0.807061 0 
6.08987 10.2143 -0.822816 0 
6.11509 10.4362 -0.818159 0 
6.10968 10.7064 -0.817615 0 
6.09012 10.8975 -0.840165 0 
6.10219 11.1119 -0.822333 0 
6.11652 11.2964 -0.853124 0 
6.10678 11.4958 -0.872239 0 
6.08961 11.6949 -0.878546 0 
6.10248 11.8989 -0.900852 0 
6.09279 12.1311 -0.921834 0 
6.09313 12.3148 -0.923219 0 
6.07953 12.5076 -0.919267 0 
6.10075 12.7025 -0.953403 0 
6.08018 12.8623 -0.967534 0 
6.13349 13.1022 -0.982369 0 
6.12374 13.538 -0.992901 0 
6.19283 13.8483 -0.964141 0 
6.04912 4.538 -0.600063 0 
6.02254 4.93591 -0.612433 0 
6.02184 5.08053 -0.626268 0 
6.05636 5.30361 -0.620869 0 
6.08328 5.47895 -0.622861 0 
6.09578 5.70133 -0.622823 0 
6.09081 5.91709 -0.626944 0 
6.10589 6.10965 -0.644526 0 
6.11246 6.31159 -0.646401 0 
6.06364 6.50512 -0.645698 0 
6.11568 6.68214 -0.662009 0 
6.10921 6.88585 -0.659229 0 
6.07102 7.11709 -0.673553 0 
6.09188 7.30268 -0.663082 0 
6.10398 7.49808 -0.666645 0 
6.09487 7.68383 -0.668764 0 
6.10347 7.90082 -0.671632 0 
6.0929 8.07519 -0.667076 0 
6.09812 8.3109 -0.667407 0 
6.09924 8.47767 -0.664822 0 
6.1093 8.69664 -0.686245 0 
6.10909 8.88205 -0.687455 0 
6.07394 9.09258 -0.689411 0 
6.11423 9.28683 -0.684161 0 
6.09488 9.49504 -0.690952 0 
6.10597 9.69399 -0.7084 0 
6.10571 9.89038 -0.727225 0 
6.0717 10.0756 -0.706779 0 
6.10419 10.2822 -0.736607 0 
6.11065 10.4786 -0.74351 0 
6.09238 10.6913 -0.754175 0 
6.09665 10.8979 -0.772284 0 
6.11665 11.0982 -0.776853 0 
6.13081 11.2356 -0.754474 0 
6.06337 11.502 -0.788346 0 
6.14944 11.8084 -0.791924 0 
6.12005 12.9493 -0.776992 0 
6.15577 1.16242 -0.415759 0 
6.06136 1.28316 -0.411339 0 
6.07511 1.46343 -0.405839 0 
6.18382 1.74991 -0.41689 0 
6.07303 1.91919 -0.412906 0 
6.05978 2.04049 -0.411016 0 
6.11299 2.28578 -0.416309 0 
6.12716 2.52251 -0.430118 0 
6.11991 2.74092 -0.431752 0 
6.10998 2.8985 -0.430729 0 
6.10536 3.10824 -0.447097 0 
6.09769 3.27047 -0.440583 0 
6.11313 3.47861 -0.456712 0 
6.11091 3.70381 -0.462991 0 
6.09359 3.91138 -0.466873 0 
6.1024 4.09357 -0.487285 0 
6.10546 4.29194 -0.497786 0 
6.09166 4.49146 -0.506466 0 
6.09481 4.69255 -0.518179 0 
6.10208 4.899 -0.524095 0 
6.1068 5.11514 -0.548789 0 
6.08911 5.30837 -0.56057 0 
6.11293 5.48464 -0.564325 0 
6.10876 5.71413 -0.578364 0 
6.1153 5.88067 -0.562045 0 
6.09972 6.06339 -0.570923 0 
6.10335 6.29508 -0.577917 0 
6.06895 6.52233 -0.581399 0 
6.12625 6.72126 -0.590683 0 
6.0965 6.88776 -0.583091 0 
6.10344 7.10217 -0.582462 0 
6.16167 7.27147 -0.587472 0 
6.09194 7.43682 -0.598156 0 
6.0103 9.91274 -0.576535 0 
6.0499 10.0828 -0.595405 0 
6.09957 -1.32687 -0.218011 0 
6.1581 -0.880522 -0.206426 0 
6.07187 -0.678567 -0.219964 0 
6.0825 -0.504385 -0.243795 0 
6.07564 -0.280759 -0.245354 0 
6.07993 -0.092991 -0.271767 0 
6.10617 0.092479 -0.280356 0 
6.10486 0.314581 -0.292139 0 
6.07321 0.519803 -0.302201 0 
6.09424 0.6888 -0.304527 0 
6.0912 0.871995 -0.302514 0 
6.10477 1.08124 -0.320354 0 
6.10081 1.29464 -0.329219 0 
6.1259 1.50738 -0.33753 0 
6.09574 1.70961 -0.336357 0 
6.10442 1.89478 -0.354068 0 
6.10955 2.11065 -0.347992 0 
6.0927 2.27224 -0.350431 0 
6.10341 2.4605 -0.36057 0 
6.12064 2.70677 -0.36564 0 
6.08297 2.88017 -0.366371 0 
6.12037 3.08634 -0.374793 0 
6.11941 3.32794 -0.371745 0 
6.13264 3.53837 -0.38393 0 
6.06594 3.70096 -0.390593 0 
6.10826 3.88746 -0.368666 0 
6.14024 4.04627 -0.396786 0 
6.08058 -4.21339 -0.013035 0 
6.11304 -4.08207 -0.009843 0 
6.05066 -3.90878 -0.026091 0 
6.11671 -3.71082 -0.011576 0 
6.04488 -3.48877 -0.012786 0 
6.12478 -3.28915 -0.026148 0 
6.1048 -3.09349 -0.026816 0 
6.1086 -2.88091 -0.02498 0 
6.10414 -2.70705 -0.044195 0 
6.10651 -2.51015 -0.050044 0 
6.10965 -2.29795 -0.036045 0 
6.09997 -2.09741 -0.057001 0 
6.08956 -1.90767 -0.057324 0 
6.12732 -1.70376 -0.074046 0 
6.0993 -1.49292 -0.085066 0 
6.11001 -1.30607 -0.113311 0 
6.12038 -1.08529 -0.138217 0 
6.10891 -0.906288 -0.133159 0 
6.12526 -0.715672 -0.155851 0 
6.10586 -0.568601 -0.175308 0 
6.16288 -0.278023 -0.176576 0 
6.09297 -0.105744 -0.183522 0 
6.08886 0.125461 -0.196768 0 
6.15877 0.617617 -0.197509 0 
6.13839 3.43281 -0.114697 0 
6.01711 -10.866 0.179059 0 
6.12432 -10.7049 0.182659 0 
6.11952 -10.5316 0.180647 0 
6.08858 -10.3082 0.167752 0 
6.09287 -10.0935 0.157662 0 
6.09272 -9.91941 0.168504 0 
6.09486 -9.69649 0.148078 0 
6.08467 -9.51627 0.148762 0 
6.07119 -9.33226 0.185046 0 
6.08301 -9.08542 0.161583 0 
6.12126 -8.86626 0.171486 0 
6.03623 -8.7122 0.172468 0 
6.05983 -8.50711 0.175516 0 
6.13548 -8.29676 0.179089 0 
6.10217 -8.09426 0.185504 0 
6.08373 -7.85773 0.168893 0 
6.10338 -7.68455 0.191073 0 
6.0706 -7.49392 0.169419 0 
6.14437 -7.28655 0.159518 0 
6.09943 -7.11304 0.166888 0 
6.10626 -6.9132 0.158112 0 
6.11574 -6.68235 0.142724 0 
6.11124 -6.49547 0.129047 0 
6.09141 -6.29463 0.131385 0 
6.09032 -6.0983 0.143611 0 
6.09446 -5.91465 0.137555 0 
6.08769 -5.69879 0.119585 0 
6.11083 -5.49831 0.130181 0 
6.07757 -5.29073 0.114246 0 
6.09087 -5.11083 0.120931 0 
6.10189 -4.86424 0.103801 0 
6.12731 -4.70183 0.09469 0 
6.10415 -4.50513 0.071469 0 
6.09869 -4.31537 0.052467 0 
6.10196 -4.09097 0.048009 0 
6.10851 -3.9052 0.041021 0 
6.10591 -3.70561 0.040194 0 
6.08508 -3.50901 0.049751 0 
6.10726 -3.31642 0.029417 0 
6.08552 -3.12901 0.039189 0 
6.10317 -2.92002 0.023631 0 
6.13968 -2.72411 0.026238 0 
6.04681 -2.52331 0.026786 0 
6.142 -2.27536 0.038379 0 
6.03903 -2.10744 0.049664 0 
6.1403 -1.88525 0.024952 0 
6.03506 -1.6919 0.049501 0 
6.10523 -1.44762 0.031365 0 
6.16874 -1.35352 0.046473 0 
6.16157 3.54231 0.072316 0 
6.02273 -14.3349 0.370457 0 
6.12522 -14.1231 0.383112 0 
6.00651 -13.6331 0.387005 0 
6.0403 -13.3332 0.395542 0 
6.04685 -12.2159 0.388498 0 
6.05091 -12.1493 0.391249 0 
6.07326 -11.8636 0.348916 0 
6.12137 -11.6694 0.376701 0 
6.09713 -11.4844 0.369489 0 
6.08487 -11.2866 0.338452 0 
6.09525 -11.0828 0.310197 0 
6.09322 -10.9238 0.271441 0 
6.09117 -10.7251 0.229902 0 
6.10881 -10.4967 0.224169 0 
6.11462 -10.2767 0.223877 0 
6.14369 -10.1192 0.260484 0 
6.16398 -9.89278 0.217027 0 
6.13777 -9.62263 0.20531 0 
6.11698 -9.29173 0.218231 0 
6.08664 -9.03173 0.21621 0 
6.13413 -8.89356 0.217014 0 
6.09329 -8.51213 0.241616 0 
6.06977 -8.31533 0.230836 0 
6.08961 -8.12764 0.231409 0 
6.1189 -7.92196 0.222544 0 
6.11443 -7.66816 0.225253 0 
6.04958 -7.51157 0.220055 0 
6.07301 -7.29588 0.261723 0 
6.17011 -7.09149 0.205466 0 
6.14027 -6.99133 0.223341 0 
6.04966 -6.77309 0.220855 0 
6.07139 -6.19241 0.332376 0 
6.14563 -5.84369 0.20163 0 
6.11472 -4.96766 0.231161 0 
6.02645 -4.69884 0.226754 0 
6.17074 -4.5402 0.226397 0 
6.10586 -3.55474 0.202366 0 
6.09866 -24.0918 0.564539 0 
6.04495 -21.5405 0.464059 0 
6.00455 -20.0688 0.548347 0 
6.1568 -19.7496 0.560237 0 
6.08859 -19.332 0.565724 0 
6.13706 -19.0467 0.533713 0 
6.09295 -18.6184 0.569761 0 
6.17312 -18.4454 0.550259 0 
6.05134 -18.3586 0.557009 0 
6.09248 -17.6488 0.520447 0 
6.15365 -17.4975 0.503333 0 
6.11013 -17.3138 0.527138 0 
6.01009 -16.59 0.585117 0 
6.12596 -16.3762 0.595406 0 
6.14066 -16.0726 0.522094 0 
6.09851 -15.4854 0.549879 0 
6.07937 -15.2533 0.502946 0 
6.149 -15.0553 0.522684 0 
6.12434 -14.9311 0.536319 0 
6.10853 -14.7079 0.544636 0 
6.11406 -14.4837 0.531691 0 
6.0983 -14.3073 0.518881 0 
6.13198 -14.1192 0.524403 0 
6.12781 -13.9006 0.509674 0 
6.11121 -13.6898 0.514767 0 
6.11427 -13.5765 0.537964 0 
6.10473 -13.3132 0.54555 0 
6.09192 -13.1407 0.51042 0 
6.06447 -12.9059 0.514383 0 
6.09394 -12.6892 0.518561 0 
6.10431 -12.5044 0.500681 0 
6.1072 -12.2911 0.483092 0 
6.10551 -12.1077 0.466205 0 
6.07447 -11.8667 0.436433 0 
6.11926 -11.6984 0.474297 0 
6.12709 -11.4849 0.423223 0 
6.10086 -11.0929 0.486655 0 
6.11277 -10.8955 0.43772 0 
6.00242 -10.7035 0.431661 0 
6.05843 -10.5406 0.420891 0 
6.05597 -10.2812 0.406364 0 
6.14917 -8.6755 0.404969 0 
6.1109 3.55625 0.457691 0 
6.01442 -28.551 0.785094 0 
6.12484 -28.3899 0.79399 0 
6.15364 -28.0155 0.772246 0 
6.17154 -27.9673 0.795874 0 
6.03829 -24.867 0.763339 0 
6.1023 -24.6456 0.759467 0 
6.06246 -24.4484 0.681848 0 
6.09148 -24.2985 0.679155 0 
6.12048 -24.1246 0.681417 0 
6.05421 -23.927 0.689252 0 
6.11023 -23.0671 0.698179 0 
6.10133 -22.9227 0.666617 0 
6.10368 -22.6447 0.682553 0 
6.19489 -22.1807 0.682626 0 
6.12061 -21.293 0.71429 0 
6.0308 -20.0953 0.616114 0 
6.10495 -19.917 0.643037 0 
6.09369 -15.5715 0.604045 0 
6.13585 -15.2615 0.6089 0 
6.14435 -15.1213 0.608191 0 
6.01438 -14.9427 0.715875 0 
6.1346 -14.7349 0.649501 0 
6.15662 -14.5339 0.681015 0 
6.11384 -14.3621 0.706286 0 
6.19132 -13.5757 0.608248 0 
6.00635 -13.0285 0.620649 0 
6.19476 -12.9239 0.641573 0 
6.17135 -12.0541 0.678523 0 
6.18115 -11.0655 0.622073 0 
6.02716 3.54098 0.660466 0 
6.13462 -29.8636 0.874803 0 
6.19979 -29.5602 0.876495 0 
6.06247 -24.8569 0.886262 0 
6.06406 -24.7542 0.896665 0 
6.1533 -24.4854 0.810175 0 
6.13181 -24.346 0.838422 0 
6.18194 3.55927 0.84941 0 
6.13181 3.60518 0.841178 0 
6.03426 -24.8489 1.13384 0 
6.03079 -24.7175 1.1083 0 
6.06161 -24.6848 1.36038 0 
6.06096 -24.5721 1.24847 0 
6.11808 -24.6702 1.50785 0 
6.07159 -24.5925 1.49699 0 
6.12721 -24.8067 1.77211 0 
6.06741 -24.6423 1.72415 0 
6.10136 -24.5838 1.7445 0 
6.08172 -24.8365 1.92581 0 
6.10875 -24.6877 1.90326 0 
6.09271 -24.5556 1.86744 0 
6.18637 -15.0188 1.96857 0 
6.08933 -24.6961 2.05464 0 
6.0929 -24.5712 2.09057 0 
6.14103 -15.0853 2.61474 0 
6.21664 28.5264 -2.54232 0 
6.35714 28.7285 -2.45571 0 
6.27662 28.8167 -2.48353 0 
6.25623 29.2609 -2.51333 0 
6.33166 29.5083 -2.46907 0 
6.37671 28.4791 -2.38522 0 
6.38901 25.002 -2.02953 0 
6.2869 23.2548 -1.85632 0 
6.29651 23.5745 -1.85918 0 
6.29794 23.686 -1.89658 0 
6.24258 23.9749 -1.90942 0 
6.29254 24.0233 -1.86827 0 
6.21664 24.2038 -1.92517 0 
6.23566 24.851 -1.94694 0 
6.24497 21.2841 -1.68299 0 
6.34331 21.6962 -1.69761 0 
6.2515 22.0131 -1.75886 0 
6.31291 22.4041 -1.78194 0 
6.24298 22.7186 -1.76081 0 
6.27647 22.8594 -1.76037 0 
6.39835 23.1558 -1.72043 0 
6.23865 17.9505 -1.41634 0 
6.2064 18.0992 -1.41751 0 
6.20069 18.5287 -1.41753 0 
6.21521 19.109 -1.40271 0 
6.3195 19.3372 -1.41026 0 
6.27759 19.4122 -1.40898 0 
6.25766 19.8869 -1.51883 0 
6.22614 20.4753 -1.53843 0 
6.29267 15.5458 -1.24514 0 
6.2216 15.6933 -1.20488 0 
6.29188 16.3234 -1.23748 0 
6.32612 16.507 -1.2593 0 
6.26981 16.6967 -1.26713 0 
6.23398 16.8729 -1.25444 0 
6.30057 17.1249 -1.27262 0 
6.31031 17.2588 -1.33496 0 
6.25581 17.5177 -1.31632 0 
6.29839 17.7318 -1.3593 0 
6.32267 17.9481 -1.34998 0 
6.29937 18.0928 -1.3577 0 
6.2663 18.3025 -1.35167 0 
6.28738 18.476 -1.36212 0 
6.30575 18.7028 -1.36461 0 
6.32504 18.878 -1.36775 0 
6.24579 19.0292 -1.37295 0 
6.24015 19.3486 -1.39741 0 
6.39342 19.4232 -1.39518 0 
6.33878 12.5279 -1.00937 0 
6.27685 12.7016 -1.02341 0 
6.29988 13.125 -1.01919 0 
6.28494 13.3128 -1.03891 0 
6.30331 13.4622 -1.03374 0 
6.29849 13.6846 -1.05629 0 
6.29783 13.89 -1.05679 0 
6.28603 14.1088 -1.07156 0 
6.34289 14.3147 -1.1013 0 
6.31715 14.5398 -1.10749 0 
6.32777 14.6963 -1.11456 0 
6.31421 14.8593 -1.12586 0 
6.30576 15.0845 -1.11836 0 
6.28687 15.2849 -1.14421 0 
6.34066 15.4362 -1.16526 0 
6.32122 15.6841 -1.17184 0 
6.3014 15.8761 -1.16898 0 
6.34253 16.089 -1.179 0 
6.38216 16.268 -1.18377 0 
6.25587 10.1591 -0.801439 0 
6.34082 10.4865 -0.819887 0 
6.31877 10.7559 -0.822378 0 
6.29494 10.9264 -0.83628 0 
6.30511 11.1035 -0.823082 0 
6.32418 11.2843 -0.841071 0 
6.29336 11.4892 -0.85977 0 
6.3063 11.6893 -0.875313 0 
6.30629 11.9045 -0.907512 0 
6.29252 12.1038 -0.895833 0 
6.28096 12.2778 -0.908477 0 
6.30633 12.4952 -0.922303 0 
6.31144 12.6964 -0.945235 0 
6.29373 12.9122 -0.964407 0 
6.27304 13.0785 -0.98182 0 
6.29249 13.2643 -0.966431 0 
6.22934 13.4043 -0.966248 0 
6.33344 13.6297 -0.996384 0 
6.25012 5.11975 -0.614047 0 
6.22967 5.32316 -0.615672 0 
6.26943 5.51646 -0.625393 0 
6.27961 5.70764 -0.612914 0 
6.28742 5.92158 -0.621009 0 
6.32017 6.09773 -0.628663 0 
6.3074 6.29477 -0.642894 0 
6.30532 6.50626 -0.645203 0 
6.29518 6.70571 -0.653184 0 
6.31131 6.90514 -0.658974 0 
6.28813 7.09295 -0.667996 0 
6.30213 7.30781 -0.668636 0 
6.29244 7.50697 -0.661927 0 
6.29146 7.71542 -0.66409 0 
6.30943 7.90395 -0.666632 0 
6.29851 8.08971 -0.667221 0 
6.30343 8.29246 -0.6696 0 
6.29612 8.50451 -0.664873 0 
6.308 8.70932 -0.67598 0 
6.31359 8.88975 -0.681716 0 
6.3087 9.10576 -0.685544 0 
6.29567 9.28913 -0.699704 0 
6.29772 9.50083 -0.703994 0 
6.29636 9.69924 -0.697416 0 
6.30873 9.90384 -0.724889 0 
6.3182 10.1057 -0.738086 0 
6.30833 10.312 -0.734032 0 
6.28972 10.5095 -0.739945 0 
6.29792 10.7123 -0.771124 0 
6.31133 10.9194 -0.776142 0 
6.34179 11.1001 -0.782471 0 
6.26146 11.2673 -0.769791 0 
6.22763 11.4477 -0.782444 0 
6.36983 11.7661 -0.796141 0 
6.21406 12.7286 -0.754892 0 
6.24935 1.0027 -0.407457 0 
6.38573 1.28349 -0.407814 0 
6.29971 1.5011 -0.409586 0 
6.26981 1.63895 -0.410351 0 
6.35227 1.92936 -0.416915 0 
6.30676 2.11793 -0.419571 0 
6.29515 2.30738 -0.418978 0 
6.27127 2.4809 -0.424815 0 
6.30044 2.68782 -0.427424 0 
6.27702 2.90703 -0.431927 0 
6.31069 3.09803 -0.431892 0 
6.30891 3.29616 -0.44276 0 
6.29598 3.49492 -0.448814 0 
6.31217 3.68218 -0.456469 0 
6.29228 3.88591 -0.469499 0 
6.3073 4.09232 -0.467444 0 
6.2913 4.29039 -0.483768 0 
6.29903 4.50696 -0.485807 0 
6.30335 4.70406 -0.501044 0 
6.27961 4.89825 -0.514584 0 
6.29226 5.09551 -0.525961 0 
6.30771 5.29859 -0.544438 0 
6.29795 5.51595 -0.558046 0 
6.31476 5.70231 -0.564646 0 
6.28903 5.8865 -0.578381 0 
6.32359 6.06604 -0.57514 0 
6.33461 6.28619 -0.576872 0 
6.26997 6.4903 -0.561616 0 
6.31304 6.71764 -0.582663 0 
6.34209 6.87584 -0.578671 0 
6.31572 7.15402 -0.598833 0 
6.28557 7.36556 -0.583079 0 
6.32127 7.45791 -0.583756 0 
6.30345 7.64683 -0.591135 0 
6.27785 8.19308 -0.593631 0 
6.33883 9.08697 -0.544294 0 
6.34795 9.36376 -0.550493 0 
6.36445 9.50729 -0.571982 0 
6.29101 9.6623 -0.578171 0 
6.2125 9.91294 -0.593162 0 
6.2864 -1.06763 -0.227009 0 
6.33383 -0.840145 -0.22028 0 
6.26738 -0.695351 -0.218515 0 
6.29523 -0.497574 -0.246505 0 
6.31371 -0.272773 -0.266581 0 
6.31333 -0.089027 -0.259722 0 
6.291 0.11243 -0.265576 0 
6.3109 0.302958 -0.280939 0 
6.30265 0.485359 -0.286232 0 
6.27508 0.713529 -0.292031 0 
6.3057 0.896906 -0.305881 0 
6.29939 1.08428 -0.335909 0 
6.30384 1.30238 -0.323492 0 
6.30862 1.50101 -0.328676 0 
6.30149 1.69792 -0.341526 0 
6.31895 1.88861 -0.357772 0 
6.29662 2.09464 -0.351937 0 
6.30638 2.31629 -0.34257 0 
6.30366 2.51818 -0.35541 0 
6.31866 2.71079 -0.368431 0 
6.29179 2.89839 -0.374648 0 
6.30681 3.11958 -0.352093 0 
6.3058 3.29457 -0.376883 0 
6.2904 3.48468 -0.385929 0 
6.32177 3.69859 -0.38389 0 
6.29088 3.90043 -0.380358 0 
6.35514 4.08247 -0.365543 0 
6.29344 4.29687 -0.372149 0 
6.3127 -4.31538 -0.004055 0 
6.32464 -3.81111 -0.022488 0 
6.30757 -3.62474 -0.019472 0 
6.32354 -3.491 -0.022888 0 
6.28881 -3.2584 -0.017339 0 
6.31915 -3.06032 -0.024053 0 
6.28082 -2.89154 -0.027762 0 
6.30414 -2.70529 -0.03395 0 
6.30893 -2.48954 -0.038361 0 
6.30251 -2.27256 -0.040617 0 
6.29171 -2.09939 -0.050348 0 
6.31515 -1.89447 -0.062149 0 
6.32526 -1.70442 -0.064336 0 
6.29372 -1.51122 -0.070811 0 
6.30947 -1.29432 -0.10069 0 
6.30515 -1.12729 -0.125278 0 
6.29535 -0.923314 -0.135839 0 
6.31615 -0.713372 -0.162435 0 
6.28801 -0.522605 -0.162188 0 
6.33401 -0.365332 -0.168452 0 
6.27327 -0.111077 -0.195738 0 
6.34129 0.110191 -0.185588 0 
6.25083 0.256313 -0.197338 0 
6.26693 0.531281 -0.189828 0 
6.3082 3.46977 -0.123473 0 
6.20567 -11.0155 0.199073 0 
6.24025 -10.8636 0.184282 0 
6.33713 -10.6449 0.179056 0 
6.26788 -10.503 0.177118 0 
6.27424 -10.2856 0.169612 0 
6.27467 -10.1216 0.18327 0 
6.30114 -9.94019 0.186059 0 
6.28306 -9.72867 0.170414 0 
6.29419 -9.50182 0.175326 0 
6.32147 -9.28127 0.174722 0 
6.29865 -9.1046 0.166134 0 
6.26112 -8.88408 0.178033 0 
6.32222 -8.73401 0.17914 0 
6.22549 -8.54225 0.185572 0 
6.35066 -8.31318 0.190346 0 
6.21384 -8.16986 0.175647 0 
6.30614 -7.83836 0.179253 0 
6.23658 -7.70863 0.163273 0 
6.28458 -7.48074 0.17768 0 
6.29474 -7.31794 0.174244 0 
6.2998 -7.08509 0.164378 0 
6.31499 -6.87501 0.145075 0 
6.3116 -6.72158 0.15008 0 
6.31349 -6.52343 0.144571 0 
6.29813 -6.29028 0.158053 0 
6.29151 -6.09572 0.140505 0 
6.29166 -5.90582 0.143004 0 
6.32825 -5.67342 0.137978 0 
6.2923 -5.52352 0.130448 0 
6.29466 -5.30755 0.124432 0 
6.27975 -5.0961 0.110202 0 
6.26861 -4.90996 0.099583 0 
6.28633 -4.71501 0.10325 0 
6.30645 -4.47532 0.078069 0 
6.27512 -4.33591 0.059801 0 
6.32066 -4.08015 0.056412 0 
6.26814 -3.87723 0.039445 0 
6.27508 -3.68684 0.058622 0 
6.31474 -3.48725 0.049475 0 
6.2778 -3.28231 0.039419 0 
6.28784 -3.09716 0.020994 0 
6.29413 -2.89731 0.088289 0 
6.30757 -2.72156 0.015125 0 
6.30447 -2.54821 0.022264 0 
6.28531 -2.32179 0.027464 0 
6.31138 -2.09057 0.0418 0 
6.32549 -1.88917 0.021753 0 
6.34923 -1.75477 0.025487 0 
6.34997 -1.4918 0.019113 0 
6.25241 -1.17455 0.007663 0 
6.36579 3.32353 0.079244 0 
6.27755 3.46256 0.073058 0 
6.26643 -13.9349 0.397321 0 
6.20227 -12.406 0.389825 0 
6.2865 -11.6646 0.393681 0 
6.28161 -11.462 0.383362 0 
6.31697 -11.3071 0.369458 0 
6.27266 -11.0764 0.342929 0 
6.29071 -10.9237 0.299893 0 
6.29254 -10.7352 0.23734 0 
6.30543 -10.5161 0.228389 0 
6.33871 -10.3318 0.232063 0 
6.33009 -10.1039 0.208598 0 
6.2663 -9.90671 0.211246 0 
6.32958 -9.68932 0.213266 0 
6.27131 -9.46819 0.228835 0 
6.34989 -9.37737 0.212124 0 
6.30197 -9.14476 0.227282 0 
6.30096 -8.86605 0.221559 0 
6.2878 -8.66927 0.212899 0 
6.32914 -8.55244 0.230011 0 
6.27455 -8.28156 0.227671 0 
6.30959 -8.06194 0.240676 0 
6.29808 -7.90067 0.217992 0 
6.30438 -7.6899 0.224776 0 
6.32091 -7.49852 0.219594 0 
6.30145 -7.33019 0.21664 0 
6.32009 -7.09092 0.219337 0 
6.32973 -6.92678 0.238658 0 
6.36918 -6.72666 0.206217 0 
6.32599 -6.25835 0.242135 0 
6.27164 -6.18305 0.203797 0 
6.31179 -5.829 0.208442 0 
6.39425 -5.69049 0.209074 0 
6.25523 -4.98039 0.238323 0 
6.27863 3.52525 0.261186 0 
6.26307 -23.8448 0.583177 0 
6.3938 -21.1251 0.533266 0 
6.34668 -20.4059 0.574278 0 
6.34649 -20.107 0.560894 0 
6.39338 -19.8595 0.576727 0 
6.35706 -19.4599 0.597135 0 
6.37127 -19.0001 0.559892 0 
6.21672 -18.9804 0.570502 0 
6.34474 -18.6561 0.59304 0 
6.26035 -18.5012 0.564321 0 
6.36523 -18.3773 0.579726 0 
6.32705 -18.0583 0.556094 0 
6.20407 -17.9518 0.533868 0 
6.22043 -17.7717 0.563344 0 
6.30789 -17.5115 0.533047 0 
6.2192 -17.3871 0.477184 0 
6.33034 -16.9773 0.502186 0 
6.33355 -16.234 0.552929 0 
6.33816 -15.8791 0.547258 0 
6.22693 -15.6921 0.547348 0 
